# .PCD v0.7 - Point Cloud Data file format
VERSION 0.7
FIELDS x y z
SIZE 4 4 4
TYPE F F F
COUNT 1 1 1
WIDTH 1439
HEIGHT 1
VIEWPOINT 0 0 0 1 0 0 0
POINTS 1439
DATA ascii
-0.12462878 0.39137921 0.66661549
-0.11890173 0.39135548 0.66550004
0.16346361 0.34827641 0.67900002
0.13811438 0.35990947 0.67300004
0.14730853 0.35990947 0.67300004
0.15563856 0.35740268 0.67415386
0.16578922 0.35754439 0.67534786
0.078060716 0.36131984 0.67050004
0.13664998 0.36601067 0.67183334
0.14571892 0.36392397 0.6728462
0.15523769 0.36173052 0.67230004
-0.32260463 0.37981522 0.67900002
-0.15615769 0.37883627 0.67725003
-0.12197057 0.37989968 0.67750001
-0.35480887 0.38880479 0.67850006
-0.34509009 0.38990927 0.67400002
-0.33389744 0.38675404 0.67727274
-0.32454309 0.38566715 0.67548007
-0.31403127 0.38614246 0.67577773
-0.16111769 0.38102922 0.67350006
-0.15451172 0.38299137 0.6735357
-0.14517532 0.38294411 0.67484623
-0.1350342 0.38514569 0.67434299
-0.12502366 0.38499346 0.6745556
-0.11679348 0.38729009 0.67357147
-0.40655339 0.39651221 0.67900002
-0.38189274 0.39715594 0.67820007
-0.37635615 0.39676973 0.67800003
-0.36377272 0.39670935 0.67591667
-0.35490578 0.3955448 0.67638463
-0.34526917 0.39485657 0.67541373
-0.33498311 0.39452246 0.67394125
-0.32495853 0.39367843 0.67303574
-0.3162027 0.39214703 0.67242861
-0.15930101 0.39184046 0.671
-0.13801134 0.39125648 0.67000002
-0.12355179 0.39367658 0.671
-0.11296451 0.39094654 0.67900002
-0.41722092 0.40022266 0.67900002
-0.40399733 0.40109891 0.67860001
-0.39733952 0.40111464 0.67800003
-0.38226914 0.40047252 0.67733335
-0.3749249 0.40053266 0.67728573
-0.36797726 0.4010219 0.67800003
-0.34519058 0.40030137 0.67600006
0.17644125 0.3486625 0.68800008
0.18314296 0.34845215 0.68740004
0.20569102 0.34901461 0.68592864
0.074199103 0.35077646 0.68266672
0.1568886 0.35753894 0.68133336
0.16514936 0.35445237 0.68213636
0.17525674 0.35293773 0.68358618
0.1850957 0.35219973 0.68413049
-0.12239196 0.36690867 0.68820006
-0.11464844 0.36755472 0.68800008
-0.10756865 0.36752474 0.68900001
0.15742159 0.36071205 0.68500006
-0.37630194 0.37976128 0.68900001
-0.33315712 0.37749723 0.68660009
-0.32538059 0.37823722 0.68546158
-0.16400056 0.37494895 0.68480957
-0.15558976 0.37658888 0.68567747
-0.1446532 0.37757924 0.68492585
-0.13481022 0.37618569 0.68536669
-0.1246095 0.37543598 0.68580556
-0.11592226 0.37473324 0.68625808
-0.40711999 0.38992143 0.68700004
-0.39248884 0.38795033 0.68849999
-0.38585466 0.38769481 0.68828577
-0.37493959 0.38685095 0.68766671
-0.36550716 0.38858831 0.68736368
-0.3555975 0.38839331 0.68385714
-0.34474707 0.38601193 0.68540001
-0.33458072 0.38450402 0.6835264
-0.32537526 0.38321626 0.68353337
-0.31866899 0.38390839 0.68050003
-0.18120854 0.38194638 0.68449998
-0.17894529 0.38204905 0.68300009
-0.15246585 0.38092732 0.68350005
-0.14425114 0.38231602 0.68157148
-0.13422984 0.38179511 0.68163639
-0.12373252 0.38226268 0.68212503
-0.11820877 0.38455993 0.68250006
-0.42092773 0.39826408 0.68200004
-0.41482508 0.3972818 0.68388897
-0.40522107 0.39621058 0.68535125
-0.39511502 0.39531997 0.68645459
-0.38544926 0.39510074 0.68376189
-0.37514126 0.39438903 0.68425637
-0.36576283 0.39464742 0.68495005
-0.35508388 0.39210287 0.68478948
-0.3456735 0.39184305 0.68344456
-0.33794338 0.39245126 0.68000001
-0.32122177 0.39152229 0.68000001
-0.42296997 0.40159351 0.68314296
-0.41571185 0.40177462 0.6826154
-0.4038665 0.40201411 0.68416673
-0.39512873 0.4022972 0.68457144
-0.38779023 0.4020094 0.6814
-0.37100098 0.40140149 0.68099999
0.20456593 0.33943623 0.69900006
0.22748435 0.33943623 0.69900006
0.17764875 0.34707236 0.69300002
0.18556915 0.34680364 0.69428575
0.19473505 0.34582949 0.69460011
0.20475985 0.34513175 0.69376475
0.21489145 0.34370005 0.69406897
0.22518985 0.34365866 0.69419229
-0.13252577 0.35853493 0.69900006
-0.12580413 0.35843235 0.69880003
-0.094898693 0.35859632 0.69849998
0.068077341 0.35768914 0.69000006
0.070165411 0.35493898 0.69200003
0.15285045 0.35881186 0.69400001
0.17535532 0.35072029 0.69300008
0.18684982 0.35014805 0.69000006
-0.16458674 0.36717844 0.69728571
-0.15422198 0.36779371 0.69657141
-0.14356235 0.36633042 0.69671428
-0.13497128 0.36542624 0.69611114
-0.12529181 0.36382535 0.6949001
-0.11547544 0.36469576 0.6952334
-0.10477013 0.36516002 0.69451624
-0.095777646 0.36391267 0.69705003
-0.089425616 0.36183625 0.69800001
0.0057075243 0.36331066 0.69389999
-0.37255821 0.37745875 0.69300002
-0.36748898 0.3771663 0.69346672
-0.35020077 0.37655312 0.69700003
-0.3441706 0.37750301 0.69700003
-0.33455357 0.37667778 0.69326669
-0.32457745 0.3753044 0.69422734
-0.1817874 0.37667835 0.69025004
-0.17466328 0.37324482 0.69423819
-0.1658404 0.3724857 0.69400007
-0.15463586 0.37270403 0.69300008
-0.14545606 0.37244636 0.69195461
-0.13487655 0.37193763 0.69255567
-0.12789233 0.37213981 0.6911667
-0.11078994 0.37547114 0.69150007
-0.10644433 0.37391889 0.69372731
-0.39624727 0.38734949 0.69022226
-0.38480386 0.38559306 0.69187516
-0.37435669 0.38426518 0.6919601
-0.36468866 0.38524655 0.69441181
-0.35541689 0.38452077 0.69400012
-0.34520161 0.38419995 0.69438893
-0.33867797 0.38238332 0.69033337
-0.32594562 0.38125512 0.69000006
-0.11336036 0.38260877 0.69280005
-0.42176113 0.39785576 0.69100004
-0.41545624 0.39814362 0.69150007
-0.40764096 0.39288101 0.69000006
-0.39422515 0.39297581 0.69016671
-0.38727704 0.39137316 0.69066668
-0.3765856 0.39137229 0.69066668
-0.36092377 0.39086854 0.69200003
-0.35714227 0.39086854 0.69200003
0.18556681 0.33945787 0.70300007
0.19551815 0.33748007 0.70581818
0.20480604 0.33730352 0.70504171
0.21558282 0.3376863 0.70555562
0.22457863 0.33814719 0.70462495
0.23437525 0.33675164 0.70571989
0.24499294 0.33654267 0.70481479
0.25472078 0.33400902 0.70619047
0.18789151 0.3446075 0.70400006
0.19503166 0.34180376 0.70366669
0.20520093 0.34176525 0.70116669
0.2134399 0.34113878 0.70369995
0.22589719 0.34183446 0.70000005
0.23677288 0.34110284 0.70200002
-0.17300268 0.35783899 0.70833331
-0.1651766 0.35729447 0.70713329
-0.15503651 0.3565841 0.70545465
-0.14478561 0.35752222 0.70469248
-0.13493884 0.35694012 0.70376194
-0.12499928 0.35556105 0.7041924
-0.11486305 0.35543263 0.70455569
-0.10496327 0.35629782 0.70416659
-0.095248707 0.35504586 0.70482147
-0.085095942 0.35519764 0.70548391
-0.076572791 0.35418564 0.70700002
-0.342347 0.36714566 0.70700002
-0.1726432 0.36564606 0.70537508
-0.16507362 0.36369857 0.70408338
-0.15548041 0.36368462 0.70305002
-0.14674547 0.36369514 0.70130771
-0.13571429 0.36194173 0.70066667
-0.12410865 0.36096039 0.70000005
-0.11464657 0.3612698 0.70060003
-0.10542845 0.36264271 0.70114291
-0.094047144 0.36426345 0.70120007
-0.085643075 0.36236432 0.70355558
-0.36368203 0.37707612 0.70228577
-0.3552137 0.37516785 0.7040385
-0.34570819 0.37460953 0.70472413
-0.32741398 0.37242752 0.70225
-0.17686534 0.37222812 0.70444447
-0.36281395 0.38042757 0.70300001
-0.35591289 0.38204518 0.70150006
-0.34788287 0.38199902 0.70000005
0.28899956 0.31968057 0.71900004
0.17599089 0.32722428 0.71616673
0.21432592 0.32703844 0.71600008
0.22502556 0.32725233 0.71738464
0.23428422 0.32777151 0.71855557
0.24516496 0.32867828 0.71719998
0.25564256 0.32724833 0.71788889
0.26540703 0.32736158 0.71605009
0.27485463 0.32620943 0.71558827
0.28340918 0.32216638 0.71580005
-0.072470933 0.33736122 0.71900004
0.17112875 0.33539671 0.71900004
0.19559002 0.33578479 0.71150005
0.20557295 0.33468282 0.71200001
0.21538007 0.33301672 0.71252382
0.22507763 0.33303213 0.71321744
0.23450299 0.33223954 0.71377283
0.24450779 0.33248588 0.7137273
0.25481945 0.33113858 0.71406257
0.26320943 0.33088979 0.713
0.27018687 0.33008462 0.71600002
-0.18488429 0.34782389 0.71742862
-0.1547424 0.34733015 0.71511531
-0.14475735 0.34593409 0.7162692
-0.1349217 0.34730294 0.71591312
-0.12482382 0.34691197 0.7155
-0.11543088 0.3459267 0.71613801
-0.10560867 0.34680402 0.71563995
-0.094672322 0.34575659 0.71607155
-0.084965892 0.34555954 0.71515626
-0.075165235 0.34536082 0.71558338
-0.065315597 0.34566545 0.71453339
-0.055594064 0.34378913 0.71747065
0.17457083 0.34034088 0.71700001
0.18697119 0.3418583 0.71200001
0.20115235 0.34086773 0.71400005
-0.18360017 0.35329649 0.71568424
-0.17539221 0.35392714 0.71360004
-0.16523649 0.35294536 0.71240008
-0.15554082 0.3534922 0.71192855
-0.14501525 0.35295188 0.71233344
-0.13531333 0.3532626 0.71255565
-0.12464467 0.3533169 0.71125001
-0.11381938 0.3513104 0.71257144
-0.10564663 0.35304108 0.71200007
-0.094149068 0.35221246 0.71210003
-0.085289888 0.35119021 0.71120006
-0.07415536 0.35380217 0.7129091
-0.066243298 0.35328582 0.71544445
-0.34121311 0.3690269 0.71000004
-0.17678182 0.36414161 0.71087503
-0.076724179 0.36181146 0.71300006
0.31051904 0.30975842 0.72800004
0.19385248 0.31652355 0.72477788
0.22452262 0.31656224 0.72650003
0.23360609 0.31837788 0.72799999
0.257166 0.31815127 0.72900003
0.28803945 0.31815127 0.72900003
0.2947953 0.31734899 0.72507697
0.30173144 0.31419623 0.72600007
-0.062352248 0.32919666 0.72700006
-0.059454352 0.32964948 0.72800004
-0.031563479 0.32919666 0.72700006
-0.02961779 0.32964948 0.72800004
0.07967335 0.32919666 0.72700006
0.21803662 0.32559901 0.72080004
0.22453177 0.32462618 0.72378582
0.2349347 0.32419631 0.72353852
0.24526885 0.32542679 0.72437042
0.25464135 0.32465258 0.72385705
0.26454699 0.32357621 0.72480953
0.27522358 0.32294062 0.72412497
0.28534549 0.32144457 0.72469229
0.29102722 0.3201431 0.72900003
-0.19288118 0.33828762 0.72733337
-0.16441542 0.33665341 0.72596008
-0.15438488 0.33683789 0.72676188
-0.14498372 0.3364476 0.72642112
-0.13553002 0.33679512 0.72504765
-0.12453553 0.33646101 0.72477269
-0.11534705 0.33658174 0.72600001
-0.1051691 0.3369123 0.72619236
-0.094952919 0.33652207 0.72567999
-0.085352421 0.33712086 0.72522736
-0.074800476 0.33584863 0.72473091
-0.064693041 0.33540809 0.72541672
-0.055342779 0.33497712 0.72441381
-0.036549918 0.33348 0.72744441
-0.028662555 0.3310982 0.72900003
0.032000422 0.33515579 0.72700006
0.08345712 0.33735546 0.72250009
0.16890061 0.33420327 0.72066671
0.17490949 0.33473891 0.7245
0.21711269 0.3313292 0.72300005
-0.15529513 0.3428196 0.72275001
-0.1452972 0.34172618 0.72346151
-0.13516392 0.34252167 0.7216
-0.12540995 0.34296608 0.72164297
-0.11454487 0.34256998 0.72170007
-0.1036587 0.34348905 0.72156256
-0.095588878 0.34306574 0.72150004
-0.086174011 0.34173843 0.72133344
-0.075704448 0.34062356 0.72175002
-0.063291982 0.34211886 0.72075009
-0.054379508 0.3432554 0.72222227
-0.045977373 0.34213024 0.72337502
-0.20111988 0.35255027 0.72600007
-0.060768254 0.3535684 0.72000003
-0.055018924 0.3506051 0.72200006
-0.33224821 0.36733913 0.72000003
0.17652459 0.30331874 0.73442858
0.22212248 0.30664635 0.73166674
0.31833375 0.30751884 0.73533338
0.32342088 0.30452487 0.73700005
0.2149183 0.31550369 0.73450005
0.22233133 0.315016 0.73566669
0.23678933 0.31771672 0.73375005
0.245864 0.31814477 0.73323083
0.25473174 0.31651759 0.73447824
0.26470226 0.31626907 0.73569226
0.27473193 0.31681535 0.73480767
0.28485227 0.31667894 0.73527277
0.29397529 0.31536058 0.73400003
0.30438557 0.31364307 0.73400009
0.31298068 0.31140232 0.73659998
-0.20142092 0.3281256 0.73800004
-0.18552247 0.32771522 0.737077
-0.17419642 0.32790381 0.73637509
-0.1650047 0.32765511 0.73588228
-0.15466522 0.32734647 0.73681259
-0.14515829 0.32770744 0.736
-0.13517337 0.32771415 0.737077
-0.12361837 0.32818443 0.73699999
-0.11502091 0.32751891 0.7363891
-0.10532684 0.32750615 0.73661113
-0.094679467 0.3263818 0.73606253
-0.084767215 0.32747078 0.73547059
-0.074831523 0.32717416 0.73515797
-0.065416612 0.32676426 0.73573917
-0.054815963 0.32628703 0.73613644
-0.045151189 0.32611278 0.73557693
-0.0350454 0.32623354 0.73583341
-0.0257979 0.32561806 0.73480785
-0.019431632 0.32549596 0.73775005
0.090467989 0.32233885 0.73400003
0.17710119 0.32523966 0.73150003
0.18353651 0.32665154 0.73525
0.22699499 0.32255983 0.73450005
0.23508386 0.32320532 0.73312503
0.24488749 0.32205302 0.73133337
0.25594366 0.32110924 0.73119998
0.26607728 0.32128489 0.73159999
0.27577066 0.32093361 0.73079997
0.28444543 0.32058227 0.73000002
-0.20422986 0.33419526 0.73699999
-0.16444831 0.33162585 0.73200005
-0.15583891 0.33219004 0.73168749
-0.14495715 0.33271787 0.73141176
-0.1348238 0.33300838 0.7331053
-0.1261338 0.33251446 0.73199999
-0.11562773 0.33286217 0.7318666
-0.10521817 0.33178899 0.73273337
-0.095277242 0.33203027 0.73326665
-0.084952086 0.3327702 0.73131251
-0.075934634 0.33188096 0.73172724
-0.067715026 0.33170718 0.73128575
-0.054011881 0.33134344 0.73175007
-0.045905881 0.33036086 0.73400003
-0.036090434 0.33289239 0.73149997
-0.026248172 0.33316582 0.73400009
-0.019942494 0.33014476 0.73800004
0.078221276 0.33146071 0.73200005
0.082498066 0.33556545 0.73150009
0.098087423 0.33500251 0.73100001
0.16829847 0.33561358 0.73233336
0.17673092 0.33248493 0.73133332
0.18346772 0.33171111 0.73700005
0.21962194 0.33055511 0.73000002
-0.035826772 0.34092462 0.73300004
0.21803057 0.29348236 0.74733335
0.089486912 0.30882686 0.74250007
0.092193529 0.30600578 0.74800003
0.1113121 0.30519032 0.74600005
0.1845618 0.30294609 0.74550003
0.2246654 0.30583507 0.74610007
0.27551287 0.30739117 0.74706668
0.28470019 0.30751616 0.74635714
0.29486293 0.30769062 0.74713337
0.30463094 0.3072502 0.74606675
0.31541386 0.30796096 0.74505562
0.32495397 0.30520764 0.74543756
0.33281672 0.30151922 0.74450004
-0.20033017 0.31869376 0.74900001
-0.18391836 0.31900862 0.74675006
-0.17366007 0.31838995 0.74650007
-0.16506411 0.31675559 0.74685001
-0.15568466 0.317384 0.74712503
-0.14456615 0.3163467 0.74768752
-0.13587083 0.31734195 0.74762505
-0.12497344 0.31876603 0.7463001
-0.11519361 0.31859595 0.74671429
-0.10620985 0.31831756 0.74607146
-0.094129138 0.3191649 0.74533343
-0.085680299 0.31852359 0.74860001
-0.075394876 0.31860843 0.74800009
-0.065110669 0.31783822 0.74599999
-0.05522098 0.31867981 0.74610007
-0.044393003 0.31849968 0.74437499
-0.034220252 0.31759998 0.74576193
-0.024759293 0.31824216 0.74540007
-0.014776012 0.3184379 0.74536365
-0.0066590733 0.3179175 0.74461544
0.084697284 0.31340909 0.745
0.096111216 0.31667909 0.74666667
0.10408091 0.31532425 0.74533343
0.17392032 0.31291887 0.74500006
0.1873662 0.31677634 0.74450004
0.19409673 0.31614354 0.74300003
0.20708199 0.31765029 0.74775004
0.21177179 0.31386968 0.74566674
0.23233007 0.31207976 0.74300003
0.24572785 0.31413317 0.74466676
0.25534099 0.31353289 0.74423081
0.26466611 0.31166807 0.74300009
0.27543956 0.31185314 0.74246669
0.28529841 0.31240332 0.74313337
0.29536492 0.3121877 0.7432667
0.30510977 0.31163439 0.74226665
0.31312823 0.31083739 0.74125004
-0.20434506 0.32483685 0.74348152
-0.17521875 0.32308748 0.74304169
-0.16476554 0.32321039 0.7434445
-0.15501805 0.32285166 0.74247378
-0.1453691 0.32297876 0.74413031
-0.13498418 0.32324162 0.74348009
-0.12567878 0.32426408 0.74230772
-0.1155236 0.32273886 0.74255002
-0.10457925 0.32333791 0.7432223
-0.095387556 0.32290715 0.74264705
-0.085120767 0.32253399 0.74372
-0.075087965 0.32240471 0.74321741
-0.063489355 0.323764 0.74115384
-0.054162838 0.32214311 0.7431429
-0.043164071 0.32223099 0.74100006
-0.034014083 0.3226957 0.74200004
-0.024123861 0.32146519 0.74257147
-0.015667357 0.32454085 0.74261117
-0.0075741634 0.32329318 0.74466676
0.090149783 0.32848701 0.74800003
0.16781229 0.32133251 0.74800003
0.18716192 0.32454482 0.74366665
0.19358696 0.3232908 0.74233335
0.20255601 0.32031202 0.74800003
0.23375088 0.32396284 0.74000001
-0.21431158 0.33445364 0.74390912
-0.20831358 0.33148408 0.741
-0.022077939 0.33396155 0.74200004
-0.017075587 0.33225572 0.745
0.086970463 0.33314767 0.74700004
0.23011686 0.28731498 0.75800002
0.19749415 0.29688489 0.75600004
0.20292485 0.29934597 0.75700003
0.22348066 0.29423508 0.75240004
0.24509883 0.29419479 0.75440001
0.28595871 0.29738334 0.75779998
0.29425678 0.29760441 0.75783342
0.30520862 0.29850146 0.75785714
0.31752026 0.29806304 0.75900006
0.32788929 0.29806304 0.75900006
0.33721375 0.29757959 0.75620002
-0.17427807 0.30852047 0.75583333
-0.16393293 0.30775321 0.75733334
-0.1556759 0.30741978 0.75769234
-0.14505519 0.30825126 0.75763631
-0.13628332 0.30813438 0.75699997
-0.12549293 0.3088533 0.7578572
-0.11549868 0.30941492 0.75633335
-0.092847846 0.30968767 0.75700003
-0.081471965 0.30968767 0.75700003
-0.074428894 0.30635825 0.75900006
-0.065959409 0.30968767 0.75700003
-0.058720216 0.30968767 0.75700003
-0.045965448 0.30968767 0.75700003
-0.03647979 0.30834177 0.75687498
-0.022505334 0.30941492 0.75633335
-0.015273605 0.30948311 0.75650001
-0.0039098021 0.30927148 0.75725001
0.0047083362 0.30885997 0.75666666
0.087101899 0.30592424 0.75475001
0.092481002 0.30452484 0.75450003
0.20138718 0.30221063 0.75900006
0.21860182 0.30640021 0.75400001
0.224186 0.30764216 0.75200003
0.233977 0.30577266 0.75375003
0.25049669 0.30348265 0.75700003
0.27506688 0.30407718 0.75208336
0.28446701 0.30259269 0.75333339
0.29519016 0.30264071 0.75445461
0.30465549 0.30288315 0.75380957
0.314771 0.30325013 0.75479996
0.32519028 0.30273539 0.75515008
0.33375546 0.3014318 0.75274998
-0.1841047 0.31419539 0.75252175
-0.17510985 0.31389573 0.75265211
-0.16520159 0.31238529 0.75392312
-0.15487765 0.31311139 0.7526843
-0.14522628 0.31229988 0.75333339
-0.13471957 0.31402931 0.75358337
-0.12506731 0.31430051 0.7527917
-0.11520658 0.31435692 0.75444454
-0.10476907 0.31367561 0.75507134
-0.09494675 0.31454325 0.75432152
-0.084812298 0.31374282 0.75415385
-0.075077325 0.31401885 0.75474077
-0.064983621 0.31395194 0.75409997
-0.055184223 0.31402591 0.75414282
-0.045119163 0.3141565 0.7543847
-0.035013705 0.31313786 0.75405276
-0.024402143 0.31372163 0.7536
-0.013925573 0.31375301 0.75288004
-0.004920037 0.3140083 0.75325
0.0036370058 0.31445691 0.75530005
0.084259935 0.3149603 0.75422227
0.094741225 0.3158609 0.75200003
0.10690282 0.31395829 0.75566667
0.11125258 0.31708866 0.75250006
0.16214348 0.31642273 0.75333339
0.20514685 0.31707007 0.75000006
0.21582779 0.31154424 0.75150001
0.22625779 0.31065777 0.75433332
0.23710354 0.31354642 0.75716662
0.24260661 0.31196654 0.755
0.25597975 0.31373212 0.75183338
0.26410657 0.31185991 0.75599998
-0.21434605 0.32591745 0.75150001
-0.20524192 0.32202491 0.75200003
-0.0038782095 0.32570061 0.75100005
0.00022658563 0.32082123 0.75400001
0.096769705 0.32723945 0.75575
0.15742137 0.32209772 0.75700003
0.16326796 0.32069817 0.75533336
-0.22398436 0.33661655 0.75400001
0.088577189 0.33298138 0.75200003
0.096182205 0.3321718 0.7525
-0.22050083 0.34084266 0.755
0.22316782 0.27547905 0.76733333
0.18698801 0.28900701 0.76800001
0.23502478 0.28662908 0.76725006
0.2467503 0.28774899 0.76466674
0.30699578 0.28938332 0.76900005
0.335361 0.28938332 0.76900005
-0.1535311 0.29939073 0.76880008
-0.14631304 0.29797572 0.76840001
-0.13073921 0.29848817 0.76900005
0.18624119 0.29727167 0.76499999
0.19694267 0.29449967 0.76411116
0.23500445 0.29276505 0.76550007
0.25873634 0.2912949 0.76300001
0.26794192 0.29474685 0.76250005
0.27557427 0.29712304 0.76460004
0.28569728 0.29534182 0.76430005
0.29464605 0.29593512 0.76287502
0.30445132 0.29500318 0.76477283
0.31453222 0.29580507 0.76519048
0.32464367 0.29656878 0.76517385
0.33443192 0.29547605 0.76508337
0.34477526 0.29415613 0.76449996
-0.17324418 0.30775231 0.76188904
-0.16526851 0.3042073 0.76328582
-0.15474966 0.3036111 0.76277274
-0.14475885 0.30400935 0.7635417
-0.13443173 0.30453983 0.763125
-0.12479082 0.30474681 0.76403707
-0.11478616 0.30528992 0.76441383
-0.10465121 0.304984 0.76538455
-0.094778575 0.30544636 0.76553845
-0.08581236 0.30571601 0.76472723
-0.074397385 0.30629328 0.76426101
-0.064573519 0.30571619 0.76511115
-0.055288792 0.30591086 0.76545447
-0.045280159 0.30599269 0.76437503
-0.035022009 0.30531886 0.76478273
-0.024855671 0.30564547 0.76503342
-0.01440221 0.30565974 0.76506656
-0.0051246998 0.30506003 0.76413041
0.0043351995 0.30527616 0.76437938
0.085703388 0.30797279 0.76300001
0.13260216 0.30829346 0.76900005
0.14708465 0.30569637 0.76600003
0.17218706 0.3034994 0.76750004
0.19547473 0.30325797 0.76425004
0.20276348 0.303056 0.76550007
0.22492078 0.30772948 0.76500005
0.23296981 0.30836821 0.76400006
0.24662352 0.30196869 0.76100004
0.25256655 0.3025718 0.76199996
0.26794398 0.30151677 0.76250005
0.27600187 0.3044112 0.76366663
0.28269351 0.30216596 0.76766664
0.32376772 0.30112541 0.7615
0.33247435 0.30053228 0.76000005
-0.18611017 0.31277415 0.76200002
-0.10609215 0.31005752 0.76300001
-0.096710853 0.31005752 0.76300001
-0.08316008 0.31005752 0.76300001
-0.074526951 0.3129915 0.76000005
-0.062312741 0.31005752 0.76300001
-0.053973801 0.31005752 0.76300001
-0.045634866 0.31005752 0.76300001
0.086577274 0.31360924 0.7615
0.095182918 0.31270841 0.76099998
0.22425534 0.31170192 0.76450002
0.26602516 0.31091496 0.76000005
0.11983935 0.32467973 0.76800001
0.12193774 0.32467973 0.76800001
0.2188302 0.269768 0.77300006
0.21727613 0.27258348 0.77500004
0.15646559 0.2848829 0.77388889
0.16381288 0.28620481 0.77750003
0.23557431 0.28691077 0.77366668
0.30929393 0.28877103 0.773
0.31575829 0.28736824 0.77623075
0.3260397 0.28839505 0.77766675
0.33619255 0.2876865 0.77446163
0.34489962 0.28727189 0.77628577
-0.15375954 0.29810256 0.77420002
-0.14462224 0.29561666 0.77359998
-0.13525134 0.29473469 0.77480763
-0.12514342 0.29568776 0.77563995
-0.11460929 0.29606608 0.77552003
-0.10469241 0.29687423 0.77535301
-0.095499665 0.29710299 0.77589482
-0.084839955 0.29808497 0.77564287
-0.075413808 0.2984176 0.77569228
-0.065557815 0.29783896 0.77500004
-0.054774806 0.29710305 0.77589482
-0.044404056 0.29718196 0.77582353
-0.035433598 0.29710135 0.77594125
-0.025171628 0.29742265 0.77482361
-0.014367799 0.29739845 0.77561116
-0.0048173731 0.2977227 0.77515382
0.0045784782 0.29692164 0.77484208
0.015177903 0.29685462 0.77631831
0.025224905 0.29657921 0.77520001
0.078479804 0.29760924 0.77400005
0.18590134 0.29395777 0.77366668
0.19373719 0.29760924 0.77400005
0.20220198 0.2960712 0.77000004
0.24618016 0.29399854 0.77377772
0.25124165 0.29262158 0.77200001
0.28262743 0.29451996 0.77516669
0.30456528 0.29294908 0.77411109
0.31567925 0.29166132 0.77225006
0.32551008 0.29175913 0.774625
0.33336774 0.2913596 0.77333337
0.34471866 0.29147002 0.77214289
-0.1620796 0.3019172 0.77149999
-0.15858123 0.30011126 0.77500004
-0.14388303 0.3002789 0.77000004
-0.13551193 0.30037642 0.77025002
-0.12507102 0.30057138 0.77075005
-0.11568979 0.30082491 0.77140003
-0.1051241 0.30074689 0.77120006
-0.094760664 0.30129284 0.77260005
-0.08360073 0.30232573 0.77187502
-0.076457269 0.30260164 0.77109998
-0.06516318 0.30189484 0.77212507
-0.053176131 0.30228812 0.77155566
-0.045108523 0.30169517 0.77183342
-0.035381533 0.30225736 0.77237505
-0.025135159 0.3016828 0.7736001
-0.014559634 0.30160484 0.77340007
-0.0050420752 0.30096138 0.77175003
0.0044436664 0.30051288 0.77060002
0.014999514 0.30113688 0.77219999
0.064005353 0.30977586 0.77800006
0.095564276 0.30800641 0.7753334
0.11231643 0.30712169 0.77400005
0.17064407 0.3065905 0.77000004
0.19863708 0.30442059 0.77250004
0.20061785 0.30949616 0.77200001
0.22759461 0.30784151 0.77050006
0.097173184 0.31460771 0.77550006
0.2274483 0.31290209 0.77000004
0.1186608 0.32087192 0.77400005
0.21782653 0.27496105 0.78540009
0.31686354 0.27753663 0.78300005
0.32501519 0.27902535 0.78720003
0.33568415 0.27895445 0.78700006
0.34634441 0.27888355 0.78680003
-0.095236681 0.28819996 0.78700006
-0.084863514 0.28810376 0.78850007
-0.075192511 0.2881951 0.78875005
-0.067582637 0.28792107 0.78800005
-0.05685553 0.28810376 0.78850007
-0.043199193 0.28841472 0.78700006
-0.034973867 0.28828645 0.78900003
-0.026161635 0.2881951 0.78875005
-0.018414792 0.28851604 0.78766674
-0.0051504318 0.28810376 0.78850007
0.0045389407 0.28777492 0.78760004
0.014229449 0.28782973 0.78775001
0.024816969 0.28883195 0.78714287
0.034858681 0.28834835 0.78655559
0.045129873 0.28851321 0.78610009
0.23488933 0.28271562 0.78550005
0.31586447 0.28615001 0.78316671
0.32520911 0.28455499 0.7833913
0.33481178 0.28406194 0.784087
0.34531951 0.28325668 0.78338885
-0.1053712 0.29228288 0.78240001
-0.094534956 0.29285061 0.78240001
-0.085159883 0.29347947 0.7840454
-0.074693263 0.29329258 0.78354543
-0.065317459 0.29376525 0.7843529
-0.055580519 0.29323322 0.78394103
-0.044690542 0.29271019 0.78294736
-0.034318231 0.29251081 0.78342861
-0.02547892 0.29261619 0.78430426
-0.01507787 0.29261714 0.78300011
-0.0052914154 0.29278797 0.78436834
0.0044181962 0.29214391 0.78395241
0.015122022 0.29177478 0.78455567
0.025189444 0.29226357 0.7828334
0.034055483 0.29274535 0.78229415
0.084735975 0.29732981 0.7844286
0.096173964 0.29673353 0.78528577
0.11233733 0.29906532 0.78900003
0.128389 0.29433596 0.78500009
0.31004891 0.29000208 0.78200006
-0.15807882 0.3010698 0.78300005
0.11516241 0.30253008 0.78866673
0.21617454 0.30194587 0.78250003
0.10225714 0.31544957 0.78333336
0.19768724 0.2655741 0.79850006
0.34953555 0.26574311 0.79900002
0.075533643 0.27875441 0.79875004
0.21636689 0.2762582 0.79366666
0.32999274 0.27926618 0.79400003
0.33590484 0.2769945 0.79216665
0.34634832 0.2753872 0.79483336
-0.084921531 0.28468046 0.79466671
-0.075228304 0.28517699 0.7939474
-0.064620651 0.28565434 0.79473919
-0.05490775 0.285622 0.79494452
-0.045654297 0.28540441 0.79463649
-0.034576558 0.2849597 0.79404765
-0.024661861 0.28517139 0.79447067
-0.014677459 0.28562313 0.79465228
-0.0051922905 0.28513077 0.79525006
0.0045805406 0.28491524 0.79464996
0.0156342 0.28502747 0.79423821
0.025179008 0.28459823 0.79375005
0.034960166 0.28477454 0.79425013
0.044992931 0.28464314 0.79335302
0.14454235 0.2858468 0.79300004
0.17554322 0.2882337 0.79600006
0.29649988 0.28842744 0.79533339
0.31381959 0.28919989 0.79150003
0.32199368 0.2843312 0.79300004
-0.08718209 0.29081032 0.79000002
-0.075342081 0.29093301 0.79033333
-0.063499086 0.29108641 0.79075003
-0.054489177 0.29105571 0.79066676
-0.049470775 0.29117844 0.79100001
-0.037559524 0.29099438 0.79050004
-0.011634378 0.29081032 0.79000002
0.096015148 0.29761696 0.7966668
0.10361131 0.2970112 0.79650009
0.13423447 0.29117844 0.79100001
0.15416142 0.29674953 0.79533339
0.16781524 0.29472336 0.7924
0.31322077 0.29081032 0.79000002
0.11420605 0.3025904 0.79450011
0.12641042 0.30319577 0.79275006
0.16847107 0.30114049 0.79449999
0.11770801 0.31284434 0.79250002
0.12247042 0.31203291 0.7918334
0.3393845 0.25926238 0.80600005
0.3420105 0.25958404 0.80700004
0.33753818 0.26732364 0.80744451
0.34516415 0.26566029 0.80511999
0.35426378 0.26535797 0.80180007
-0.074567929 0.27889967 0.80550003
-0.05943821 0.27791071 0.80900002
-0.033782162 0.27821484 0.80860007
-0.025636448 0.27870965 0.80857146
-0.0027033014 0.27853212 0.80866671
0.0039271461 0.27791071 0.80900002
0.01461084 0.27791071 0.80900002
0.025356658 0.2784377 0.80812502
0.035071839 0.27875555 0.80788893
0.043765005 0.27851337 0.80800009
0.054843605 0.27872786 0.80737507
0.06537953 0.278714 0.80812508
0.075115316 0.27798048 0.80600011
0.28397614 0.27983177 0.80500007
0.33479062 0.27714846 0.80466676
0.34364581 0.27220255 0.80260009
-0.073810898 0.28112629 0.80430001
-0.065198965 0.28192124 0.80433333
-0.054521475 0.28127623 0.80441672
-0.044453129 0.28165251 0.80580008
-0.035187948 0.28192124 0.8062501
-0.024714183 0.28201747 0.80600011
-0.01534172 0.2815932 0.8059231
-0.0051421798 0.28205621 0.80611122
0.0046448163 0.28125677 0.80593336
0.014554333 0.28122187 0.80583334
0.024033166 0.28173348 0.80500007
0.03539028 0.28168529 0.80400002
0.045674231 0.28151029 0.80455559
0.056026503 0.28075567 0.80450004
0.064697936 0.28046542 0.80239999
0.11478682 0.2853184 0.80620015
0.15588942 0.28438845 0.80233335
0.16750714 0.28550225 0.80550003
0.2941446 0.28728548 0.80124998
0.097771831 0.29711604 0.80216676
0.1135297 0.29445386 0.80512512
0.14845832 0.29583272 0.80166674
0.15359159 0.29734591 0.80180007
0.33881047 0.2578609 0.81433338
0.34296155 0.25809756 0.81450003
0.076329358 0.26791951 0.81900007
0.084161453 0.26791951 0.81900007
0.18416208 0.26751837 0.81100005
0.26469052 0.26680532 0.81333333
0.28520823 0.26535738 0.81800008
0.32806605 0.26477021 0.81619996
0.33483106 0.26426104 0.81395006
0.34856677 0.26341099 0.81200004
-0.06591858 0.27691761 0.81492865
-0.055026084 0.27716765 0.81378585
-0.044889323 0.27672285 0.81435728
-0.03466386 0.27586296 0.8156001
-0.025398465 0.27475771 0.81606251
-0.015444566 0.2761184 0.81450003
-0.005572645 0.27527541 0.81577784
0.0043652477 0.27537766 0.81560004
0.014954876 0.27474129 0.81580013
0.024734762 0.27434814 0.81485003
0.034773249 0.27450398 0.81531245
0.044958074 0.27445471 0.814381
0.054527536 0.27432817 0.8138237
0.064776286 0.2742151 0.81445009
0.07475166 0.27406064 0.81400007
0.084655754 0.2738114 0.81404769
0.13535607 0.277006 0.81066674
0.17606799 0.27560997 0.81200004
0.18314798 0.27598 0.81637496
0.33479452 0.2720072 0.81450009
-0.081643201 0.28046742 0.81000006
-0.077313133 0.28081366 0.81100005
-0.06504456 0.28046742 0.81000006
-0.055823099 0.28046742 0.81000012
-0.047367886 0.28064054 0.81050003
-0.036296662 0.28064054 0.81050003
-0.014142072 0.28046742 0.81000006
-0.0075026164 0.28046742 0.81000006
0.02237493 0.28046742 0.81000006
0.11336246 0.28636074 0.81575
0.1266069 0.28592557 0.81420004
0.13513109 0.28409198 0.8131429
0.1832923 0.28065893 0.81700003
0.31689087 0.25775903 0.82660007
0.3244527 0.25806987 0.82687503
0.33523247 0.25819618 0.82608342
0.34112611 0.25589138 0.82350004
-0.055054918 0.26911882 0.82612503
-0.045666493 0.26909673 0.82644445
-0.034759019 0.26813933 0.82658333
-0.025518147 0.26813516 0.82599998
-0.014595146 0.26808062 0.82524997
-0.0054926137 0.26788837 0.82581824
0.0047574667 0.2678186 0.82559997
0.014913667 0.26784033 0.82566673
0.025050053 0.26771012 0.82526666
0.035125587 0.26716381 0.8235833
0.045349684 0.26773134 0.82533348
0.05577784 0.26688579 0.82471436
0.065306887 0.26697704 0.82486683
0.074639343 0.26490566 0.82623827
0.085686311 0.26575083 0.82433331
0.095163703 0.26532349 0.82545829
0.12145237 0.26304418 0.82760012
0.19520789 0.26547584 0.82650012
0.28323534 0.26665497 0.82200003
0.3193996 0.26102385 0.82550001
0.32581329 0.26337102 0.8230769
0.33351818 0.26138121 0.82257146
-0.064259477 0.27349702 0.82284617
-0.054763306 0.27330577 0.82174999
-0.045002643 0.27314073 0.82176918
-0.035740908 0.27324259 0.82325006
-0.025598206 0.27131176 0.82249999
-0.015236782 0.27270856 0.82130003
-0.0053709419 0.27147672 0.82300007
0.0060192128 0.27215415 0.8221429
0.014170143 0.27197704 0.82180005
0.024946827 0.27108088 0.82180005
0.035034336 0.27098191 0.82150006
0.045143824 0.27101487 0.82160008
0.055221077 0.27089944 0.82125008
0.065348528 0.27101487 0.82160008
0.075324245 0.27056959 0.82025003
0.085944571 0.27048713 0.82000005
0.13267668 0.27883586 0.82150006
0.14641097 0.27597404 0.82300001
0.30972451 0.24924584 0.83900005
0.31889406 0.24924584 0.83900005
0.32691741 0.24695344 0.83900005
0.3320753 0.24867274 0.83900005
0.34296414 0.24924584 0.83900005
-0.027159067 0.25977558 0.83600003
0.0357095 0.25844607 0.83725005
0.044792954 0.25977558 0.83600003
0.055104751 0.25849822 0.83650005
0.065895781 0.258688 0.83671433
0.074509598 0.25756294 0.83625001
0.084525533 0.25791499 0.8368572
0.095294125 0.25752583 0.83545452
0.10469894 0.25785244 0.83661544
0.11483365 0.25743356 0.83635718
0.30654907 0.25243178 0.8352223
0.31482655 0.25359017 0.8337
0.32523268 0.25341699 0.83305568
0.33512226 0.25337616 0.83375001
0.34379974 0.25297111 0.83700001
0.35015079 0.25779939 0.83700001
-0.054013684 0.26691157 0.83333343
-0.044268876 0.26592943 0.83293754
-0.034884453 0.26310879 0.83499998
-0.024626177 0.26388776 0.83529997
-0.01478729 0.26334327 0.83541179
-0.0053812223 0.26306906 0.83411771
0.0045690597 0.26287591 0.83442098
0.015069444 0.26266161 0.83431256
0.02531774 0.26259556 0.83410013
0.035524566 0.2633647 0.83291674
0.044660084 0.2628971 0.83350009
0.054337982 0.26299316 0.83284622
0.064402364 0.26303744 0.8326
0.075323045 0.26099396 0.83260012
0.084386751 0.26258579 0.83225
0.094476707 0.26049241 0.83100003
0.10530622 0.26144508 0.83283335
0.31571814 0.2610085 0.8326667
0.32399434 0.26632822 0.83150005
0.05471893 0.24967614 0.84825003
0.065161504 0.24972029 0.8484
0.075468898 0.24930818 0.84700006
0.084924579 0.24989688 0.84900004
0.095247678 0.24960253 0.84800005
0.10348227 0.24989688 0.84900004
0.11276111 0.24989688 0.84900004
0.12424877 0.24967614 0.84825003
0.18888013 0.24573743 0.84533334
0.19511801 0.24727623 0.84400004
0.29592767 0.24573398 0.84600002
0.30460918 0.24633534 0.8438887
0.31509566 0.24682222 0.84364712
0.3243517 0.24651076 0.84326673
0.33526438 0.24520168 0.84445
0.34525937 0.24598159 0.84399992
0.35625318 0.24526855 0.84606248
-0.032786179 0.25908223 0.84366673
-0.024518488 0.25773475 0.8448
-0.014827415 0.25698242 0.84486669
-0.0055162003 0.25673735 0.84481251
0.004864349 0.25647521 0.84395009
0.015048442 0.25627294 0.84441173
0.024488894 0.25671625 0.84475005
0.034525175 0.25570515 0.84331244
0.045162167 0.25614831 0.84287494
0.054850668 0.25513139 0.84373683
0.065017596 0.25472778 0.84505004
0.075311266 0.25340813 0.84524995
0.085375898 0.25427586 0.84429997
0.09466438 0.25333962 0.84406263
0.10476643 0.25361484 0.84439993
0.11503296 0.2536245 0.8453846
0.12519206 0.25303918 0.84457153
0.18979837 0.25363687 0.84600002
0.29949781 0.25221661 0.84900004
0.3031258 0.25352445 0.84342861
0.31009367 0.25872341 0.84000003
0.34813204 0.25683716 0.84133339
0.35408908 0.25375941 0.8429091
-0.037725598 0.26064098 0.84250003
-0.020403653 0.26101851 0.84000003
0.0094329109 0.26101851 0.84000003
0.35318363 0.26148462 0.84150004
0.27955514 0.2387581 0.85900003
0.28587595 0.23888496 0.85585725
0.29535434 0.23886929 0.8556667
0.30527177 0.23737402 0.85740006
0.31430936 0.23782496 0.85650003
0.32531738 0.23874635 0.85522223
0.33448038 0.23764551 0.8564167
0.34442282 0.23823424 0.85636365
0.35580081 0.23772407 0.85650009
0.3645992 0.2384726 0.85557145
-0.0050938823 0.24886408 0.85685718
0.0043486087 0.24786209 0.85600001
0.014975151 0.24852958 0.85685712
0.025353281 0.24865416 0.85728562
0.035126925 0.24748875 0.85599995
0.044357087 0.24737132 0.85699993
0.055712651 0.24739106 0.85640001
0.064737216 0.24641822 0.8559286
0.074877143 0.24603662 0.85505885
0.085571669 0.24625878 0.85626674
0.094834417 0.24572539 0.85468751
0.10466515 0.24658284 0.85512507
0.11553205 0.24571548 0.85488236
0.12527633 0.24588823 0.85524994
0.1345737 0.24579692 0.85493743
0.28725597 0.24303433 0.85400003
0.2945779 0.24281773 0.8502
0.30652338 0.2414252 0.85277772
0.31487316 0.24211584 0.85155553
0.32441834 0.24183463 0.85124999
0.3343004 0.24142262 0.85020006
0.34607941 0.24153599 0.85059994
0.35354295 0.24225251 0.8506667
-0.030006766 0.25776362 0.85200006
-0.02304551 0.25495502 0.85299999
-0.014011835 0.25279206 0.8544445
-0.0055657076 0.25201711 0.8522501
0.0049065095 0.25179613 0.85150003
0.016281497 0.25161737 0.85287511
0.024324641 0.25174996 0.85266674
0.035112448 0.2515007 0.85049993
0.045590132 0.25161034 0.85087502
0.08436735 0.25170296 0.85040009
0.10828053 0.25142604 0.85025001
0.11753881 0.25019121 0.85000002
0.19510227 0.25243267 0.85233337
0.295553 0.25048557 0.85100001
0.29807061 0.22953366 0.86849999
0.30417877 0.2296658 0.86900002
0.31723773 0.2296658 0.86900002
0.32484835 0.22903235 0.86839998
0.3302967 0.2296658 0.86900002
0.35749859 0.22841324 0.86874998
0.36546302 0.22763582 0.86849993
0.034009445 0.23932958 0.86471426
0.042915702 0.23867717 0.86725003
0.053423114 0.23857827 0.86860001
0.067695796 0.23951657 0.866
0.07238698 0.23937827 0.86550003
0.087443948 0.23842478 0.86633331
0.094752453 0.23814289 0.86816669
0.10625365 0.23783934 0.86849999
0.11540017 0.23824258 0.86645454
0.12796021 0.23584709 0.86554545
0.13376388 0.23812659 0.86157149
0.147929 0.23444159 0.86475003
0.18287592 0.23414476 0.86800003
0.27663004 0.23449335 0.86454546
0.28504714 0.23431394 0.86405271
0.29506484 0.23401994 0.86318749
0.30459771 0.2329163 0.86346149
0.3154448 0.23302004 0.86384612
0.32525727 0.23432101 0.86333334
0.33557472 0.23325096 0.86325002
0.34501097 0.23348573 0.86423081
0.35444972 0.23353943 0.86460006
-0.0044546383 0.24624273 0.86220008
0.0058686836 0.24368189 0.86400014
0.01560693 0.24371648 0.86412513
0.025035407 0.24359503 0.8636874
0.033919562 0.24415879 0.86150008
0.046134632 0.24333082 0.86246675
0.055339906 0.24325338 0.86307144
0.06420777 0.24248412 0.86287504
0.075094499 0.24270868 0.862625
0.08417213 0.24237482 0.8627001
0.09585683 0.24129207 0.86387503
0.10577889 0.24203315 0.86400002
0.11330783 0.24194539 0.86199999
0.1243088 0.24127175 0.86275005
0.13572654 0.24201734 0.86225003
0.2777409 0.24125963 0.86800003
0.28422362 0.24385256 0.86250007
0.063834585 0.22964545 0.87800002
0.078273498 0.22977623 0.87850004
0.083027527 0.22964546 0.87800002
0.12578967 0.22548163 0.87514287
0.13924401 0.22459145 0.87700003
0.14646605 0.22650817 0.87514287
0.20242004 0.22467685 0.87733334
0.26565835 0.22649008 0.87509096
0.27474675 0.2264235 0.87483335
0.28526396 0.22642539 0.87550002
0.29470247 0.2266268 0.87470007
0.3050423 0.22694808 0.87470591
0.31435078 0.22595067 0.87418759
0.32514265 0.22556268 0.87614286
0.33441168 0.22655819 0.8742941
0.34424499 0.22696045 0.87428576
0.35451433 0.22568746 0.87542105
0.016653255 0.23840395 0.8727501
0.025376603 0.23669384 0.8752501
0.035417754 0.23589016 0.87449998
0.044513356 0.23494369 0.8754167
0.055335108 0.23602016 0.87371427
0.065147638 0.23538616 0.87411106
0.076112896 0.23585419 0.87437505
0.084405333 0.23475672 0.87362498
0.094734892 0.23518692 0.87378567
0.10547804 0.23467621 0.87378567
0.115325 0.23345815 0.87433332
0.12398579 0.23468892 0.87321424
0.14721334 0.23111939 0.87450004
0.15091407 0.23336738 0.87175006
0.26854193 0.2317818 0.87475002
0.27484772 0.23242573 0.87171429
0.28513783 0.23059082 0.8725
0.29309186 0.23028249 0.87133336
0.34546795 0.23028249 0.87133336
0.0062337574 0.24145402 0.87300003
0.012188775 0.2402641 0.87300003
0.026529932 0.24053931 0.87400007
0.24898827 0.21818344 0.88666672
0.25539094 0.21846068 0.88685715
0.2674574 0.21794854 0.88900012
0.27554485 0.21825016 0.8860001
0.28519404 0.21838863 0.88750005
0.29447818 0.2184851 0.88625002
0.30444199 0.2183376 0.88511109
0.31428126 0.21825016 0.8860001
0.32498312 0.21864441 0.88690007
0.335596 0.21845308 0.88612509
0.029382095 0.22983474 0.88800007
0.037808012 0.22823542 0.88650006
0.04557845 0.22758476 0.88680011
0.054803688 0.22717325 0.88708335
0.064288191 0.22644745 0.88424999
0.074200504 0.22651552 0.88521439
0.084874272 0.22620299 0.88476938
0.09521319 0.2277005 0.8860001
0.10539626 0.22697221 0.8854546
0.11526203 0.22630656 0.88450009
0.12132244 0.22554579 0.88260001
0.14437547 0.2245279 0.88476938
0.20184918 0.22504602 0.88300008
0.25602219 0.22321437 0.88536358
0.26459399 0.22290555 0.88400006
0.27504921 0.22182278 0.88220006
0.28586647 0.22193186 0.88360006
0.29543522 0.22222441 0.88187504
0.30481085 0.22203746 0.88112503
0.31514063 0.22236364 0.88083339
0.32403779 0.2213815 0.88057148
0.33607402 0.22161348 0.88040006
0.34519297 0.22198278 0.88144451
0.017095331 0.2373818 0.88000005
0.026817782 0.23342644 0.88325006
0.034684006 0.23168632 0.88185722
0.045635924 0.23140733 0.88166666
0.054487947 0.2318956 0.88200003
0.062870637 0.2313206 0.88133335
0.072586931 0.23198469 0.88233334
0.088025481 0.23016857 0.88000005
0.096058451 0.23101361 0.88016677
0.10409416 0.23105769 0.88033342
0.11808063 0.23016857 0.88000005
0.12048504 0.23016857 0.88000005
0.2029272 0.23215815 0.88300002
0.26323968 0.23095322 0.88300002
0.20869079 0.25138775 0.88700002
0.3048903 0.20975503 0.89550006
0.33199066 0.20987216 0.89600003
0.51891363 0.20777127 0.89750004
0.056671605 0.21880561 0.89750004
0.066053785 0.21779726 0.89587504
0.074888103 0.21632917 0.89640009
0.083861694 0.21770193 0.89688897
0.095105909 0.21840389 0.89657146
0.24577077 0.21547337 0.89555562
0.25570482 0.21565916 0.89462501
0.26515332 0.2153251 0.89463651
0.27426547 0.21408899 0.89476925
0.2847749 0.2132507 0.89594448
0.29521802 0.21345767 0.89476466
0.30525446 0.21350473 0.89346677
0.31529948 0.21354137 0.89528567
0.32537425 0.21480218 0.89388889
0.33517447 0.21385749 0.89426678
0.51985198 0.21010639 0.89700001
0.52541888 0.21423133 0.89480007
0.036867328 0.22746897 0.89300007
0.046101116 0.22409272 0.89220011
0.055551473 0.22206801 0.89255553
0.064451918 0.22195783 0.89211112
0.075769804 0.22279316 0.89137506
0.085208833 0.22157183 0.89137506
0.094195448 0.22317272 0.89291668
0.10489181 0.22284825 0.89369231
0.24805543 0.22149307 0.89350003
0.034427397 0.23112886 0.89300007
0.36611623 0.18252268 0.90200001
0.37596902 0.18238777 0.90133339
0.079574428 0.20997052 0.90700006
0.082052611 0.20997052 0.90700006
0.24507113 0.20950752 0.90500003
0.25492948 0.20824721 0.90489995
0.26605302 0.20824155 0.90487516
0.27582902 0.20815542 0.90450013
0.28577715 0.20745663 0.9047001
0.29525369 0.20689489 0.90607685
0.30463621 0.20725416 0.90500015
0.31532723 0.20812614 0.90437508
0.32404399 0.20705861 0.90709096
0.056990735 0.21755734 0.90250003
0.065487623 0.21529223 0.90075004
0.076128066 0.21205468 0.90533334
0.085881867 0.21293378 0.90383333
0.095488384 0.21445712 0.90409106
0.24711479 0.21482708 0.90214288
0.25492445 0.2121561 0.90050006
0.2642585 0.21166784 0.90016675
0.27486521 0.2108091 0.90000004
0.31994793 0.2108091 0.90000004
0.32567215 0.2119299 0.90028578
0.051910665 0.22064532 0.90000004
0.53421724 0.18471026 0.91555554
0.25583541 0.19975801 0.91700006
0.26460648 0.19975801 0.91700006
0.27403021 0.19932234 0.91500002
0.28441876 0.19959462 0.91625011
0.29475325 0.19981246 0.91725004
0.30511126 0.19975801 0.91700006
0.084547602 0.20821719 0.91485721
0.24738248 0.20570895 0.91485721
0.25423583 0.20385183 0.91366678
0.26515928 0.20390731 0.9131667
0.27509618 0.20342268 0.91184622
0.28462034 0.2033717 0.912
0.29436874 0.20251024 0.91328573
0.30488902 0.2026443 0.91310006
0.31527641 0.20362923 0.91276926
0.49349466 0.20784643 0.91400003
0.089783154 0.21066503 0.91000003
0.24891149 0.21066503 0.91000003
0.24707256 0.19550663 0.9258889
0.25469714 0.19559643 0.92500001
0.2657353 0.19541036 0.92413342
0.27493078 0.19473721 0.92464292
0.28458682 0.19516391 0.92493755
0.29473457 0.19518825 0.9250626
0.30496219 0.19524784 0.92429411
0.49465114 0.1990809 0.92550004
0.50448859 0.19897336 0.92500007
0.08835201 0.20566222 0.92100006
0.24728818 0.2022157 0.92250001
0.49636245 0.20506436 0.92400008
0.50396919 0.20406079 0.92447066
0.24470635 0.18870349 0.93675005
0.25454214 0.18840131 0.93525004
0.26454961 0.18825024 0.93449998
0.2759105 0.18759696 0.93550009
0.28519994 0.18675557 0.93492317
0.29397154 0.18705797 0.93585718
0.24456887 0.19377525 0.93500006
0.25520051 0.19100551 0.93299997
0.26351139 0.19163172 0.93233347
0.274248 0.19044626 0.93275005
0.28181773 0.19039522 0.9325
0.29479694 0.19054836 0.93325001
0.49633771 0.19462274 0.93400007
0.50518864 0.19486621 0.93330777
0.246759 0.20004889 0.93000007
0.49854246 0.20132792 0.93199998
0.22186524 0.17811261 0.94850004
0.2388356 0.1782065 0.94900006
0.2448858 0.1782065 0.94900006
0.2543039 0.1781439 0.94866675
0.52480042 0.17801872 0.94800007
0.22822312 0.18060893 0.94800007
0.23662513 0.18457802 0.94477779
0.24496916 0.18413801 0.94400007
0.25549158 0.18376878 0.94621432
0.26476312 0.1837799 0.94437516
0.27503014 0.18365781 0.94506675
0.28513297 0.18173391 0.94488895
0.29576442 0.18303153 0.94449997
0.51520556 0.18659806 0.94513345
0.52395052 0.18355428 0.94414288
0.53144884 0.18410501 0.94600004
0.24427561 0.19192655 0.94000006
0.33486593 0.14827953 0.95666671
0.33618179 0.15161292 0.95300001
0.34449703 0.15350336 0.95372736
0.21645984 0.16960329 0.95900005
0.25183338 0.16960329 0.95900005
0.2687242 0.16951486 0.95850003
0.27512854 0.16942643 0.958
0.52406895 0.1674616 0.95612508
0.53220141 0.16960329 0.95900005
0.20990917 0.17484382 0.95900005
0.2159173 0.17492676 0.95660007
0.22576164 0.17516854 0.95530766
0.23537563 0.17539835 0.95438474
0.24480118 0.17424919 0.95458335
0.25412178 0.17459694 0.95480001
0.26517078 0.17552863 0.95420003
0.27472511 0.17560339 0.95400006
0.28492296 0.17566213 0.95400012
0.52459103 0.17473662 0.95435709
0.53338337 0.1774177 0.95525002
0.2342224 0.18124397 0.95133334
0.24687429 0.18228778 0.95000005
0.51620364 0.1812281 0.95125002
0.52201551 0.18098995 0.95000005
0.344392 0.14473374 0.96472722
0.35433477 0.14195479 0.96700007
0.20662545 0.16725671 0.96816665
0.21540095 0.1674336 0.96666664
0.2246981 0.16802138 0.96500003
0.23398495 0.1684261 0.96430004
0.24492782 0.16793364 0.96449995
0.25563934 0.16654898 0.96618176
0.26544869 0.16716549 0.9651112
0.2756407 0.16660026 0.96437514
0.19844964 0.17101812 0.96700007
0.20590398 0.17244625 0.96657139
0.21136719 0.17182629 0.96166676
0.22610129 0.17126849 0.96100008
0.23111202 0.17240314 0.96000004
0.25774407 0.17135829 0.96150005
0.2617524 0.17140251 0.96175003
0.28503108 0.17249292 0.9605
0.362966 0.13794257 0.97600007
0.3474831 0.1423952 0.97000003
0.35305434 0.14112249 0.97220004
0.2182992 0.15976584 0.97900003
0.22231156 0.15976584 0.97900003
0.24371082 0.15709093 0.97900003
0.25535265 0.15952104 0.97750008
0.26457033 0.15943944 0.97700006
0.19823739 0.16244075 0.97900003
0.20334734 0.16433071 0.97436374
0.21460582 0.16300327 0.97437501
0.22519711 0.16296113 0.97412497
0.23541676 0.16389278 0.97375
0.24461412 0.16314368 0.97433335
0.25369817 0.1620249 0.97116661
0.26495752 0.16232109 0.97142857
0.19536272 0.17029135 0.97800004
0.20386167 0.17224517 0.97400004
0.36598533 0.12880799 0.98775005
0.37301642 0.12687981 0.98850006
0.36541441 0.13413569 0.98330009
0.37384707 0.13221499 0.98500001
0.18733352 0.15752736 0.98733336
0.19452646 0.15744905 0.98459995
0.20527785 0.15603057 0.98712504
0.21543278 0.15613322 0.98425007
0.22563611 0.15590182 0.9845385
0.23545621 0.15611733 0.98518181
0.24455322 0.15569641 0.98323083
0.2549184 0.15506949 0.98472732
0.18935758 0.16266729 0.9885
0.19538638 0.1641904 0.98330778
0.20576194 0.1604186 0.98300004
0.21204424 0.16009222 0.98100007
0.23348723 0.16009222 0.98100013
0.2455489 0.16009222 0.98100007
0.19864239 0.17081371 0.98100007
0.28635973 0.11680873 0.99475008
0.29512277 0.11745954 0.99450004
0.30488798 0.11755762 0.99533343
0.31532139 0.11722139 0.99479997
0.30595833 0.12098651 0.99000007
0.3645497 0.12438266 0.9934001
0.37570888 0.12455613 0.99500006
0.1777212 0.14938192 0.99900007
0.18426937 0.14915763 0.9975
0.19502136 0.14904548 0.99675006
0.20560853 0.14882119 0.99525005
0.21543151 0.14903302 0.99666667
0.22469839 0.14885858 0.99550003
0.23557632 0.14885858 0.99550003
0.24422826 0.14709045 0.99671441
0.1764475 0.15595116 0.99538475
0.18462361 0.15475105 0.99209112
0.1949272 0.15343936 0.99350011
0.20411631 0.15270008 0.99271435
0.21351337 0.15279043 0.99280006
0.22435984 0.15135016 0.99400002
0.23516253 0.1513121 0.99375004
0.24584007 0.1511979 0.99300003
0.17918634 0.16188735 0.99200004
0.18602079 0.16374551 0.99233341
0.19254418 0.16713955 0.99100006
0.29475766 0.11292516 1.0024999
0.30548373 0.11284135 1.00175
0.36521396 0.11585256 1.0041876
0.21650325 0.13971113 1.008
0.22459605 0.13960718 1.0072501
0.23554972 0.13957253 1.0070001
0.51206249 0.13315348 1.0070001
0.18549234 0.14603242 1.004125
0.19493909 0.14591736 1.0033334
0.20449305 0.14588563 1.0031251
0.21528894 0.14490141 1.0040909
0.22465046 0.14433511 1.0038
0.23457487 0.14446962 1.0028335
0.24533983 0.14369161 1.0028571
0.30497813 0.10424328 1.0137273
0.35468113 0.10764019 1.0172501
0.36502382 0.10828761 1.0146667
0.37518451 0.10694098 1.0150834
0.35393962 0.11118788 1.0134286
0.51420754 0.11868975 1.0166668
0.22560477 0.12997128 1.018
0.51480013 0.12487262 1.0117778
0.19513726 0.13840626 1.0186667
0.20504662 0.13712814 1.0143751
0.21447031 0.13721427 1.0140002
0.22651081 0.1351659 1.0152729
0.23475735 0.13390429 1.0145
0.18490382 0.14154997 1.0127143
0.19509949 0.14154242 1.0112501
0.20416296 0.14178324 1.011
0.21003379 0.14274794 1.01
0.34565827 0.096940637 1.0276
0.35174951 0.092014372 1.029
0.36413339 0.097566254 1.02825
0.37564823 0.095112838 1.0270834
0.35548994 0.10259251 1.0252001
0.36468837 0.1023998 1.023
0.37482831 0.10252002 1.0216668
0.52349186 0.11852469 1.02125
